# .PCD v0.7 - Point Cloud Data file format
VERSION 0.7
FIELDS x y z
SIZE 4 4 4
TYPE F F F
COUNT 1 1 1
WIDTH 1459
HEIGHT 1
VIEWPOINT 0 0 0 1 0 0 0
POINTS 1459
DATA ascii
-0.117637 0.28231299 0.76340199
-0.066213302 0.19365101 0.662292
0.086044699 0.13813099 0.62376302
0.072727904 0.163077 0.60210699
0.064075202 0.0872273 0.68073702
-0.195728 0.19417401 0.77663201
-0.14718901 0.21263599 0.66022801
-0.101963 0.27850199 0.75760001
-0.072701603 0.202556 0.63382
-0.1075 0.20907 0.65923703
0.0133089 0.087006599 0.70772302
0.043898199 0.216481 0.56604701
0.026759099 0.17581201 0.59626198
-0.142693 -0.032132 0.79790097
0.0074191801 0.10995 0.653817
0.134673 0.043744899 0.74747401
-0.15029 -0.035186399 0.81309801
-0.0984836 0.118564 0.73728597
-0.086348198 0.224115 0.57700098
0.0863804 0.17917 0.51888198
0.22613899 -0.032736599 0.59526402
-0.025931001 0.175823 0.62770301
-0.050888099 0.228691 0.64366198
-0.095860697 0.085769802 0.82564902
0.119667 -0.012663 0.75962299
-0.088707499 0.115695 0.73421198
-0.066623896 0.13006 0.69776702
0.19618499 0.13866299 0.66399801
0.138661 0.036527202 0.72246999
-0.00608083 0.24759001 0.956168
-0.104344 0.140448 0.69776601
0.081808202 0.140527 0.63224202
0.065785699 0.161613 0.60918802
0.039572101 0.188522 0.57790601
0.094447598 0.024680801 0.78257799
-0.097000197 0.106373 0.76651597
0.138321 0.035460301 0.72567898
0.24578901 0.141882 0.71623701
0.0479418 -0.173942 1.04109
0.228008 0.110129 0.67128497
-0.080114201 0.175448 0.67546898
0.094630197 0.066158503 0.73567998
-0.0603486 0.186004 0.66125101
0.087540001 0.041280799 0.76721299
0.025003299 0.092119999 0.70884198
-0.087933198 0.053261898 0.79752302
0.184616 0.10277 0.70969599
0.169129 0.041575499 0.718548
0.015928701 0.150941 0.58805799
0.179822 0.139422 0.67205203
-0.14273199 0.0014503 0.76723999
0.100441 0.082387403 0.726771
0.13803899 0.052255198 0.74207902
0.083521403 0.141874 0.61406702
0.0035582599 -0.029158801 0.99366599
0.052240599 0.111546 0.657507
0.068422802 0.115966 0.69185501
-0.094134398 0.186627 0.65444601
0.063982002 0.054768499 0.73883402
0.184177 0.068959102 0.51921302
0.153441 0.050401401 0.73081398
0.083303802 0.132889 0.65188801
0.0616889 0.130817 0.726551
0.20225 0.098809399 0.689753
0.19795901 0.13967399 0.67224401
0.055195801 0.142453 0.605793
0.0271421 0.135079 0.59965497
0.146588 0.0845768 0.71225703
0.14246701 0.050812401 0.73895198
0.0539691 0.101348 0.68822497
-0.150234 0.00119776 0.79685903
0.176814 0.057372399 0.67840898
0.122427 -0.036610801 0.75814301
0.034134898 0.0468073 0.86668998
0.080443002 -0.022381 0.88486397
-0.056802899 0.12829199 0.67865402
-0.073460899 0.16165499 0.63274801
-0.083101802 0.14451499 0.73741299
0.15260699 0.134938 0.68564999
0.104034 -0.028491599 0.85821003
-0.014478 0.0490999 0.76948297
-0.147186 -0.0287096 0.81173301
0.172087 0.041361701 0.73687702
-0.0171322 0.13901301 0.68030798
0.119065 0.099399999 0.712138
-0.039557599 0.141332 0.65200901
0.077465601 0.107293 0.66744298
0.15574101 0.042846601 0.689641
-0.160293 0.0062800199 0.83435398
-0.024032 0.13668901 0.64993
0.031472798 0.078193001 0.71141398
0.16044 0.139818 0.64095002
-0.17586701 0.065701596 0.75423902
-0.064775899 0.161292 0.676135
0.040924601 -0.0359997 0.97213697
-0.100484 0.061953001 0.78197199
-0.13048901 0.045709498 0.78320903
0.138633 0.030869501 0.73960799
0.190249 0.00242157 0.63969302
0.18591499 -0.067907102 0.702142
0.087175898 0.129218 0.613931
-0.087562099 0.158126 0.66701198
0.083681203 0.141661 0.61406398
0.096434601 0.067203 0.74189103
0.0510199 0.123115 0.63922
0.025312399 0.092270702 0.705809
-0.0136201 0.124259 0.78446001
-0.021518201 0.064089201 0.79255301
0.166343 0.048437402 0.69515002
0.125128 0.093935996 0.701792
-0.109052 0.106768 0.658894
-0.084832802 0.10849 0.68337399
0.146653 0.073012203 0.74434698
-0.088117398 0.135942 0.75541502
-0.093118601 0.0101498 0.822227
0.101552 -0.0170053 0.79211402
0.148691 0.123697 0.66165
-0.0065705599 0.107634 0.68787998
-0.00112632 0.096231498 0.73083299
0.15586901 0.076467797 0.78760898
-0.172069 0.063378498 0.76211202
0.0102799 0.118907 0.68526298
0.092044502 -0.054411702 0.80484098
-0.113634 -0.017627399 0.817981
0.163709 0.072241902 0.73026901
-0.0151391 0.0910239 0.72124302
-0.101811 -0.027203601 0.83563
0.117839 0.0041046301 0.88613302
-0.093283698 0.0112618 0.83241099
-0.039655499 -0.159444 0.93922001
-0.036422599 -0.13962799 0.86601502
-0.13349999 0.0037574 0.80420202
-0.0594224 -0.020188799 0.84779501
0.086118102 -0.0022074101 0.85717303
0.0139042 0.034261201 0.80563402
0.0999147 0.105914 0.68937099
-0.0084131304 0.050264299 0.77292001
0.00182474 0.0928142 0.71528101
-0.093285903 -0.025628701 0.80278498
0.0521699 -0.15400299 0.93338799
-0.026114199 0.067314103 0.71171701
-0.0587954 0.107561 0.71708298
0.00077652099 0.066045403 0.716012
-0.037884101 0.058553401 0.74239898
0.073859401 -0.0057341498 0.87398303
-0.075622201 0.084970698 0.774755
0.054107402 0.0284063 0.85375398
0.13621201 0.0033076201 0.70438898
-0.148798 -0.0354167 0.808294
-0.0123808 0.079187103 0.71022397
-0.0246734 -0.108224 0.93480098
0.0541646 0.060721699 0.73223001
0.13287701 0.0439221 0.74093598
0.128387 0.059737202 0.74810803
-0.0125725 0.078667499 0.70707798
0.0238888 -0.093226202 0.91887099
0.098514497 -0.0112727 0.83651298
-0.154469 -0.0380968 0.83035702
-0.0412637 0.059271701 0.78702801
0.16137999 0.0505834 0.75217903
0.135997 0.021833099 0.75662899
-0.14496499 -0.0593202 0.81797999
-0.083757699 -0.110539 0.88775498
0.107571 0.038130399 0.77198601
0.038662199 0.0060641798 0.89266902
0.0839376 0.014197 0.80275798
0.147311 0.073501699 0.74468601
0.084176697 -0.024215501 0.78622001
0.041173499 0.070156902 0.75788599
-0.0734924 0.051686 0.82111299
0.076394796 -0.0037172099 0.83239502
0.131173 0.0463701 0.76239502
-0.033046 0.0608183 0.75379097
-0.114399 -0.0054931301 0.79386503
-0.0144286 0.043583401 0.766927
0.0153522 0.076254703 0.71102899
0.0245602 0.0346402 0.77101099
0.0196322 0.0301945 0.79260802
-0.10965 0.071970098 0.85561001
0.123191 -0.0098432004 0.74449497
0.062126201 0.0543309 0.76005602
0.10247 0.045938998 0.78563899
0.081489302 0.067856401 0.75633001
-0.087540701 0.054327499 0.81519997
-0.045898899 0.074535102 0.74161899
-0.115043 0.00094868703 0.80200899
0.0568147 0.073027201 0.79619098
-0.065114498 0.069899201 0.77200502
0.0481412 0.0472215 0.73417002
-0.109912 -0.0178831 0.80785102
-0.00149441 0.0347859 0.72835398
0.073510699 -0.079187602 0.87979299
0.0088454699 0.036479 0.74782503
0.066807799 -0.0015409701 0.84337598
-0.038830101 0.051428899 0.73642403
-0.0906718 -0.043368299 0.87189001
0.047528502 0.0450394 0.71647102
-0.039810602 0.0539518 0.74916202
-0.075102299 0.048687201 0.77355099
0.029802499 0.0144458 0.80001301
-0.018826099 0.0449825 0.727117
-0.076550499 0.055009998 0.83753699
0.091462098 -0.047735699 0.86826497
-0.0506479 -0.030290799 0.933523
-0.105186 -0.0485815 0.92981702
0.029685199 0.0525732 0.781286
0.090221003 0.035066701 0.76994002
-0.0086455196 -0.050068799 0.98933297
0.00089026801 -0.0607302 0.96805
-0.0475903 -0.016458999 0.92804998
-0.092210703 -0.017987199 0.82166702
-0.0145483 0.048833199 0.767757
-0.035383102 -0.086221099 0.80099303
-0.0139791 0.041172501 1.05172
-0.0046175201 0.0422814 0.78194797
0.0181491 0.034226 0.81760699
0.078040697 -0.026230801 0.87832302
-0.085796699 -0.090872802 0.86002398
-0.0130292 -0.066445 0.75651997
0.054683901 0.029642301 0.86114401
0.085186496 -0.026636099 0.880283
-0.079754598 0.039828699 0.78626299
0.00197904 -0.049260899 0.97203702
0.032382201 -0.10914 0.94032598
0.018863801 -0.0556354 0.942846
-0.077067703 0.056309499 0.827564
0.093426198 0.0081785005 0.75049198
0.0594659 0.043143399 0.78349203
0.047647901 0.035 0.88172102
0.086977601 -0.028446499 0.798931
0.025282299 -0.056782201 0.96749401
-0.0921252 0.044157699 0.836703
0.032443099 -0.107418 0.94638801
0.065325901 0.0160565 0.819444
0.0092346398 0.040768798 0.81470102
-0.076166399 -0.0138228 0.91354901
-0.0132042 0.036169998 0.70782399
0.0054338002 -0.103908 0.95969999
0.0777473 0.0069435001 0.69388199
0.025127901 0.035179399 0.769014
-0.068968602 0.046883602 0.82090998
0.099472404 -0.058214601 0.83569199
-0.095578603 0.064584799 0.794393
0.033877902 0.0563205 0.74938899
-0.0290464 0.057714101 0.74419898
0.079742797 0.047042102 0.78913999
0.102532 -0.00072244299 0.802791
0.033205699 -0.13259 0.90433103
0.046140101 0.043074898 0.70678699
0.0486666 0.0010741 0.58807701
-0.092825502 0.068402097 0.88230902
0.00362393 -0.055685099 0.96676201
-0.075409703 -0.11302 0.90531898
0.042635299 -0.14505599 0.94871998
0.038732499 0.062391099 0.74367201
0.117713 0.0465011 0.78489101
0.117518 0.043386701 0.80513602
0.102859 0.017591 0.84598601
0.142048 0.0976284 1.25571
0.107673 -0.00887834 0.83244199
0.018220199 -0.081663601 0.93036997
-0.104764 0.040802699 0.81356603
-0.104515 -0.0086059496 0.86592799
0.117965 0.043132599 0.79513299
0.042476099 -0.079414301 1.18729
-0.053518798 0.0258085 0.85246098
-0.039554801 0.052939299 0.74131501
-0.098932698 0.059874099 0.81909502
0.031701099 -0.0224932 0.88049501
0.095339403 -0.111927 0.78536201
0.129577 0.034282301 0.76412499
0.081738599 -0.039107502 0.83547401
0.092850603 0.0098454403 0.81576699
0.101341 -0.0092223398 0.81581801
0.078453399 0.047897998 0.81975299
-0.0125047 0.0309422 0.62624401
0.10918 0.059731402 0.88162601
0.045227099 -0.037597001 0.93106699
0.086527802 -0.0457539 0.85348201
0.064458102 0.022911301 0.81018603
-0.00138975 0.035260402 0.72950101
0.065156199 0.0475896 0.74709898
-0.0050948798 0.040987801 0.75208497
-0.041447502 0.0251562 0.75602198
0.127378 0.024325 0.76924002
-0.0029758101 0.055964701 0.722188
-0.114883 -0.020299099 0.82313901
-0.064308897 -0.021417299 0.89833701
0.0528409 0.058028702 0.754861
-0.095323198 0.063815102 0.79446
-0.117854 -0.00615871 0.80444503
-0.071837999 -0.111879 0.86092597
0.0534283 0.0040912698 0.78469902
0.03235 0.0512316 0.69871902
0.119371 0.037668601 0.72860098
0.094175898 0.057261702 0.73122799
0.054083001 0.059098698 0.72511703
0.039618999 0.057292201 0.71703702
-0.00221533 0.054531101 0.71404201
-0.045206301 0.063318297 0.73383099
-0.101942 0.065657102 0.78112298
0.00096622697 0.0530935 0.74192399
-0.095490701 0.0132216 0.81010199
0.114246 0.0504798 0.70816702
-0.00117632 0.064326599 0.72927302
-0.0458108 0.030250801 0.79989201
0.0765156 0.050918698 0.78629798
0.129226 0.046733201 0.75246102
-0.035647798 0.063257098 0.76487499
0.105003 -0.023544401 0.794752
0.103828 0.0122566 0.79492801
-0.0042811199 0.0445242 0.778238
-0.048929099 0.074307904 0.74417198
0.072231002 0.0129572 0.78799802
0.037730999 0.0597261 0.73058802
-0.060570601 0.0441305 0.75224102
-0.061666299 -0.044020299 0.89237398
0.0347615 -0.090806097 0.96262598
0.0021256299 0.065943599 0.73035002
0.00017853999 0.070136398 0.752891
0.023812501 0.070374899 0.73697901
0.00647665 0.056288 0.723526
0.11244 0.070978597 0.73290998
0.127085 0.032306399 0.756585
-0.077076502 0.080130599 0.76940399
0.076253802 0.0142471 0.80754799
-0.033322599 0.061547499 0.75247002
0.132073 0.055562701 0.72306597
0.068051502 0.076964296 0.74632502
-0.0671736 0.071555503 0.77797198
-0.0204172 0.077074498 0.74854499
0.0637189 0.0205552 0.79358
0.137658 0.036213201 0.73281199
0.074403502 -0.0414433 0.85633999
0.081237003 0.025932999 0.85136998
0.0396538 0.059484798 0.72954202
-0.088586397 0.074126303 0.789792
0.113686 -0.0168154 0.74195302
0.122288 0.084078498 0.79033899
0.111893 0.0105659 0.79350299
0.065228201 0.073724799 0.72609597
-0.093901299 0.0601517 0.77768999
-0.0080380701 -0.106831 0.935848
-0.075715698 -0.0237942 0.88275498
-0.096680403 0.0118886 0.8459
0.0457941 -0.14885899 0.94675899
-0.0075603998 0.050551798 0.73262399
0.093615197 -0.050186601 0.80733901
-0.072523497 0.0294473 0.847462
-0.076053001 0.048989899 0.82362503
-0.050299 0.0594019 0.78748101
0.0260504 -0.064130999 0.95963597
-0.086779997 -0.107218 0.94609302
-0.074576497 -0.069088101 0.85945803
-0.107092 -0.0230009 0.82663298
-0.116262 -0.0055969199 0.79933298
0.043981899 0.057996601 0.729312
0.15658 -0.065657698 0.76516598
0.130576 0.0084882397 0.78246403
0.119937 -0.0337382 0.74593401
-0.086519301 0.080305003 0.77332097
0.035126101 -0.0117585 0.83983803
0.128401 0.0325725 0.76168299
0.0089939702 0.035293698 0.76663601
-0.036504999 -0.135639 0.86040998
-0.076877199 -0.126085 0.89266402
-0.080304697 0.058789302 0.84477901
0.0811738 -0.041481301 0.85935098
0.092402197 0.063980304 0.72017998
-0.093061998 0.0122949 0.79726797
-0.0476586 0.034010898 0.81639302
-0.0169152 0.045231301 0.79131699
-0.048671801 -0.108804 0.908867
0.131963 -0.0294964 0.78406101
-0.106702 0.079624698 0.78921199
-0.078918099 0.0199547 0.83602703
0.127763 0.046908099 0.74871302
0.16068999 0.0289561 0.73340398
0.121961 -0.13851701 0.94310302
0.069551401 -0.0066695702 0.87106299
-0.12574001 0.0058808802 0.788885
0.072306499 0.073521703 0.71513999
-0.041473001 0.075695001 0.73827499
0.137669 0.0062441598 0.74233299
-0.13588201 -0.096769497 0.83399802
0.124378 0.037163101 0.74938703
0.105587 0.0339907 0.75653303
-0.068183303 0.0159318 0.78371698
-0.13737801 0.0109722 0.78992897
0.00180036 0.0521296 0.73682201
0.113087 -0.0540842 0.76917303
0.093762301 0.081486002 0.73265499
0.121442 -0.0206427 0.76098597
-0.096863903 0.081634603 0.74938601
0.00075110601 -0.045559499 0.91850299
-0.056917399 0.065878898 0.74876398
0.137694 0.050338302 0.751867
-0.0767572 0.0083626099 0.88560802
-0.069312401 0.046368498 0.79838002
0.146917 0.044714399 0.71144199
0.108058 -0.0087656304 0.85094899
0.13444 0.047550399 0.742769
-0.017597901 0.0334967 0.79400301
-0.034554999 -0.13584 0.84837401
0.037669498 0.046552401 0.86007297
0.068104401 -0.090991303 0.64794499
-0.061053399 0.068659097 0.77075499
-0.026797 0.072077997 0.73701501
0.14406 0.072376303 0.726816
0.093339697 0.082056999 0.73181701
0.144502 0.072237499 0.75526202
-0.089863002 0.0146777 0.78101099
-0.0955946 -0.122 0.95949602
-0.13889401 -0.0258832 0.807953
0.00381505 0.0076591498 0.84477597
0.15290201 0.0050617401 0.748164
0.094987601 0.082094401 0.73647398
-0.0327756 -0.155194 0.87269503
0.13541301 0.0912726 0.73052502
-0.129035 -0.0859349 0.81803101
-0.018737201 0.033697799 0.789419
-0.114324 -0.0180755 0.82622099
0.110226 0.077514 0.721398
-0.15732101 -0.00057698 0.79927897
-0.0034038699 0.082618199 0.69408202
0.118176 0.075417504 0.76086199
0.146007 0.162388 1.16497
0.099521697 -0.000632949 0.78873497
0.030097499 -0.066304997 0.99471402
-0.069154203 0.1133 0.71952099
-0.032549798 0.101381 0.67712897
-0.097120598 0.086026303 0.77690297
-0.15542001 -0.0129731 0.798805
-0.045099098 -0.050809201 1.11072
0.061682198 0.052383602 0.74950802
0.14336599 0.0325968 0.75560099
0.18280999 -0.0740017 0.82833803
-0.110176 0.126581 0.68675703
-0.080300197 0.12791499 0.793019
0.15274499 -0.0027598599 0.75549102
-0.0140434 0.118092 0.62720299
-0.17838299 0.060033899 0.760755
-0.0845531 -0.050271001 0.87199599
-0.086138301 0.087952897 0.77068502
-0.101374 0.092406102 0.76060802
-0.021559199 0.101573 0.70996797
0.100653 0.106267 0.68865502
-0.102925 -0.0214593 0.806665
0.179949 -0.096993297 1.2545
0.153045 0.094884701 0.70712501
0.106524 0.086114101 0.74697
-0.076460101 0.055868201 0.80143601
-0.085525103 0.16649599 0.843413
0.082123302 -0.042231001 0.85390699
-0.178964 0.069044501 0.77942997
-0.0569898 0.113984 0.68748701
-0.204381 -0.016351899 0.82555598
0.100855 -0.059429798 0.84478903
0.105816 0.102662 0.69578302
0.043752901 0.087994501 0.66612601
0.162827 0.044642799 0.716474
-0.13609301 0.12141 0.76797903
-0.037314098 0.095765002 0.70168602
0.101405 0.106045 0.68643898
0.16857199 0.062229998 0.73629397
0.116957 -0.096148901 0.76955402
-0.206184 0.066176698 0.77451199
0.16195799 -0.0625313 0.751858
-0.0307269 0.116344 0.65479702
0.103727 0.123096 0.693223
0.033741798 0.060183499 0.72796702
-0.208055 0.025123199 0.776869
-0.080791697 -0.0953945 0.87029302
-0.081791498 0.0618334 0.71442801
-0.084203199 -0.12565701 0.86240298
0.18398 0.106638 0.71179098
-0.090972498 -0.047438301 0.89724803
-0.032863799 0.115288 0.669698
-0.0077428101 0.086735897 0.75654399
0.174495 0.118815 0.681611
-0.13134401 0.041519601 0.78555298
-0.082272001 -0.097153097 0.885131
-0.129852 0.012376 0.76270801
-0.084490702 -0.115919 0.866983
-0.063524596 0.075063601 0.79688799
-0.0265086 0.132065 0.65675998
-0.0083958497 0.105699 0.697945
-0.210393 0.026105501 0.77205497
0.18253499 -0.142619 0.79948801
0.168258 0.062083699 0.73878503
-0.055359699 0.159812 0.72074699
-0.139847 -0.035280701 0.79619402
0.040886201 -0.160944 0.98141801
0.065203696 0.083633803 0.68586397
-0.155204 0.0010449101 0.79929203
0.189528 0.063490197 0.72457802
-0.174109 -0.109609 0.85093099
-0.038340401 0.058189198 0.76542097
-0.0089752199 -0.152457 0.73236698
-0.0508366 -0.157575 0.90693998
0.136675 -0.0278104 0.86442298
-0.103348 -0.026168 1.14193
-0.035347398 -0.074124001 0.94101602
0.054535199 -0.16067301 0.977552
-0.0125127 -0.134524 0.698722
-0.17156699 0.0774801 0.75123101
-0.131973 0.0022054799 0.80539101
0.15538301 0.087384701 0.75771701
0.0189417 -0.161082 0.73755097
0.26102999 -0.082565598 0.83508998
-0.15025499 0.148642 0.71608901
-0.071709201 -0.0605646 0.94918901
0.0095923897 0.106543 0.66527098
-0.0573151 -0.00023278 0.924411
-0.051846899 0.077648699 0.76614898
0.17684001 0.047464401 0.716335
-0.195988 -0.11261 0.83800399
-0.065653399 -0.16541 0.87181199
-0.064995199 -0.164884 0.862656
0.130649 0.046859801 0.72191101
-0.045063999 0.114407 0.76350802
-0.158931 0.031550299 0.77609903
0.250209 -0.057427201 0.826006
0.127565 -0.0361057 0.738922
-0.151316 -0.025441499 0.80318898
0.22171301 0.093506098 0.85426497
-0.100315 0.048951499 0.81835097
-0.115686 -0.0043489402 0.79037899
-0.13824201 -0.0360533 0.77779597
-0.161552 -0.080063403 0.825423
0.111407 -0.048864901 0.77624899
-0.14129201 -0.109671 0.809955
-0.145909 -0.023789801 0.797741
0.036864899 0.146764 0.61154097
0.057521399 0.131604 0.66365999
-0.0234871 -0.068227597 0.90606099
-0.21081799 0.121721 0.77693301
0.025345 0.108817 0.63915902
0.165442 0.14507399 0.66098398
0.039020501 0.043352202 0.776178
-0.171424 0.072874002 0.765908
-0.111358 0.028106799 0.82025802
-0.26727501 -0.027453201 0.79896998
-0.074586101 0.13054 0.71142
0.037446901 -0.15758801 0.980901
-0.16801301 0.145904 0.71707302
0.027164901 -0.127095 0.956002
0.034091599 -0.23314799 0.96520102
-0.305682 0.050687902 0.79177302
0.22933801 -0.19266599 0.80613101
0.152768 0.12532599 0.67613
-0.025153 -0.113076 0.94577098
0.14035501 0.031475201 0.74260902
-0.290941 0.0230365 0.82611501
0.22258601 -0.22782201 0.89998698
0.233503 -0.25455901 0.91551799
-0.21092699 0.032775801 0.78117001
0.13725799 -0.0077664601 0.79503298
-0.13801301 0.0128331 0.79577601
0.21775299 0.12773401 0.63049299
0.0139042 0.029761899 0.75956303
-0.209029 0.15271699 0.747881
0.109437 -0.0217412 0.80154097
-0.040716801 -0.131412 0.85773098
-0.0314315 0.107487 0.70975399
-0.20813 0.017634399 0.76774001
-0.19250301 -0.022962499 0.79131699
-0.073582202 0.0621842 0.81837898
0.097068101 -0.0085936701 0.77859199
-0.080858096 0.101431 0.790048
-0.17263199 -0.211723 0.81635201
-0.212246 -0.142749 0.795259
-0.0164943 0.131869 0.68910301
0.018791299 0.110401 0.70192897
-0.30568901 0.048028599 0.78880203
0.217852 0.149262 0.66630298
-0.215534 -0.034827299 0.81725502
-0.27935201 -0.065797403 0.89167702
-0.18391401 -0.203289 0.858643
0.050875001 -0.17289899 1.04219
0.16126999 0.0481828 0.73963499
0.18008301 0.047125001 0.69828099
0.180849 0.091452897 0.71738601
0.12952 0.047075801 0.75540799
-0.208933 0.148683 0.73609698
0.21938901 0.15049399 0.67462498
0.048959501 0.0042939102 0.82083398
-0.082835302 0.16154499 0.86290199
0.18954299 0.14771301 0.67337102
-0.145671 -0.112686 0.80932897
-0.181697 -0.21131501 0.82770503
0.167723 0.129737 0.67552698
-0.061229002 -0.0322937 0.84875703
-0.138652 -0.116559 0.821962
-0.064884499 0.075363502 0.78485203
-0.225198 -0.149924 0.83270901
0.147715 -0.241385 0.953022
0.215132 -0.25040901 0.98403299
-0.210748 -0.142042 0.78939199
-0.053972799 -0.0137255 0.99695897
-0.257465 0.00168171 0.82492602
0.124983 -0.150948 0.56884402
-0.158696 0.029896099 0.77331197
0.26035899 -0.0691787 0.81114
-0.245086 -0.29161501 1.15994
0.20757701 0.14263 0.62852299
-0.231438 0.135768 0.76920903
0.25618401 -0.247862 0.95981997
0.170486 0.13197701 0.68522799
0.15366399 0.072600901 0.74825901
-0.092348397 0.0139611 0.76378101
-0.30466399 0.048613999 0.78596401
-0.081863903 0.183091 0.68498403
0.0144802 0.15505099 0.59884
0.199118 0.085583203 0.70555902
-0.024447801 0.102667 0.66124898
0.13235299 0.035814598 0.74595201
0.116163 0.13916001 0.642133
-0.0064506698 0.097001702 0.70078403
-0.125108 0.0078112702 0.76852298
-0.199665 -0.218476 0.92141402
-0.0088252099 -0.106307 0.92346799
0.150351 0.13641299 0.59415901
0.10562 0.14308199 0.621355
0.29060599 0.098376296 0.82540601
-0.082074597 0.105591 0.78572899
-0.25685999 -0.133892 0.86326998
-0.15272801 0.089720599 0.73202598
-0.179654 -0.207288 0.82081598
-0.21691599 0.085988 0.74035001
0.139246 0.031349801 0.73898
-0.32004401 0.102056 0.78074098
-0.26517001 -0.0091859801 0.82307202
0.19634099 0.114611 0.58966798
-0.091060303 0.18370099 0.63837999
-0.204505 0.118455 0.742827
-0.057748601 0.192781 0.64592701
-0.211824 0.0272412 0.78464699
-0.22355101 0.131789 0.74286401
-0.147642 0.21714599 0.67139
-0.039788399 0.098986 0.71980399
-0.117911 -0.00138979 0.78823
-0.140522 -0.0248117 0.77831799
-0.182942 -0.204423 0.855546
-0.0186921 0.105872 0.719356
-0.16839699 0.174698 0.71844399
-0.111421 -0.030623499 0.82837999
-0.105753 -0.021079799 0.71648997
0.0127642 0.086403899 0.70106
-0.077398099 0.089748502 0.79666001
-0.074868999 0.040972199 0.780038
0.26087099 0.144797 0.619528
0.246572 0.193617 0.66705
0.0159146 0.18582 0.60707003
-0.168653 -0.18168201 0.78380501
0.16614699 0.24969999 0.48769501
-0.091348 0.090645798 0.77189302
-0.13230599 -0.0247063 0.79636002
-0.043716099 -0.114206 0.90113801
-0.23202699 0.23940501 0.675484
0.192954 0.084453501 0.63923597
-0.17814501 0.065722197 0.781335
0.162653 0.145881 0.64769399
-0.32730401 0.121904 0.74493802
-0.13294099 0.2089 0.65243202
0.206504 -0.16299701 0.91750097
-0.31882101 0.103218 0.780155
0.31559899 -0.106988 0.84474301
-0.079830498 -0.101789 0.88623601
0.214799 -0.058780499 0.84941399
0.062008101 0.213962 0.53783202
0.29389301 -0.140991 0.81923002
-0.183158 0.267077 0.66285801
0.25894099 0.199055 0.653166
0.21041401 -0.054182298 0.81411803
0.0283693 0.059028801 0.76028502
-0.303572 0.20609701 0.69537002
0.039415099 0.221994 0.64591801
-0.34663501 0.145403 0.78731501
0.310866 0.196016 0.70691198
-0.14532501 -0.031826898 0.81266302
-0.123784 0.25465 0.675035
-0.17516799 0.17570899 0.686194
0.10444 0.0026440599 0.69173098
-0.216727 -0.0252927 0.80242997
-0.0323628 -0.0100945 1.01694
-0.0191928 -0.040042799 0.999713
-0.016814001 0.175271 0.62739098
0.024649 0.054312799 0.67816502
-0.065409102 -0.170325 0.87632501
0.232383 0.0113576 0.78737301
-0.237075 0.183524 0.73455101
-0.15503301 0.000348328 0.79463202
0.26547301 0.14684699 0.64091301
-0.054564498 0.23127601 0.64339399
-0.26548699 0.22239199 0.66063797
0.024241701 0.18053301 0.59320498
0.279915 0.0400985 0.91785002
-0.26523799 0.181785 0.58197498
0.26084799 0.0392121 0.84785998
-0.26784 -0.0098953797 0.82993603
-0.114408 -0.00266376 0.75740898
0.040710799 0.223093 0.41981199
-0.227551 0.099299401 0.73565203
0.25954801 0.125936 0.66585201
0.0046454002 0.23816299 0.481646
-0.0218763 0.229332 0.52977699
0.23613 -0.099450096 0.83293802
0.0585365 0.153272 0.54024601
0.0131666 0.220989 0.431301
-0.172361 0.24886601 0.51545298
-0.16707 0.24144 0.49532101
0.044638898 0.228357 0.463144
0.316719 0.147395 0.83928299
0.18802699 0.25611001 0.578704
-0.078180902 0.24461 0.60148001
-0.202766 0.058738299 0.76978099
-0.162075 0.084303796 0.73831397
-0.049550701 0.207711 0.53853703
-0.267317 0.22019 0.75933599
0.054226302 0.218317 0.62442899
-0.047209401 -0.130274 0.99890298
-0.0302181 0.13601901 0.66330397
-0.081463397 0.160495 0.763345
0.14199001 0.0325942 0.753766
0.23693299 0.27386501 0.59249502
-0.0035113399 0.160908 0.62683201
-0.33867401 0.17816 0.728517
-0.15781701 0.199232 0.67510301
-0.33950299 0.178551 0.73115999
0.0600527 0.211035 0.52898598
-0.143804 0.25084099 0.676121
-0.137217 0.276656 0.57628798
0.047984701 0.031845801 0.77253097
-0.055900302 0.10909 0.97191501
-0.26810899 0.22509 0.67527199
-0.347846 0.16409899 0.77355498
0.082413502 0.20319401 0.49138799
-0.036089301 0.0216331 0.0164568
-0.035681501 0.25535899 0.452227
-0.25552699 0.21029501 0.70436198
-0.150593 0.244482 0.67026597
-0.27284399 0.22193401 0.76742601
0.30686399 0.15024699 0.79344201
-0.031063501 -0.048124 0.94110501
-0.111862 0.233945 0.61712098
-0.235098 0.247999 0.54670298
-0.23297 0.229526 0.56091899
0.098116502 0.13305201 0.55687201
-0.197148 0.27835199 0.61932999
0.161847 -0.022999 0.73738301
0.0557441 0.204772 0.41582099
0.070905402 0.25488001 0.46889901
0.061277401 0.18842 0.310983
-0.28282899 0.017181501 0.80700201
-0.067470297 0.03379 0.874668
-0.16690999 0.044941001 0.791646
-0.062774204 0.171913 0.68362403
-0.0049075601 0.158182 0.61164898
0.0246996 0.250797 0.43493199
-0.15543699 0.23818199 0.63305497
0.137446 -0.047452699 0.51881099
-0.0338853 0.161486 0.63067698
0.092543103 0.25382701 0.50351202
-0.0173546 0.12777901 0.660595
-0.099545397 0.25610799 0.68994099
-0.090093099 0.14986999 0.78287601
0.292505 0.154163 0.72166198
-0.117543 0.13095 0.72422498
0.225238 0.26254001 0.55907798
-0.052177001 0.22984099 0.36652699
-0.20208099 0.066574097 0.758358
-0.27411401 -0.00771535 0.78044301
-0.16610999 0.10915 0.73307699
-0.086277701 0.163693 0.79599702
-0.0977863 0.230924 0.37595201
-0.201974 0.11248 0.74400902
0.32712999 -0.034600198 0.737293
0.050656602 0.102915 0.120285
0.024425101 0.257332 0.45199701
-0.0141873 0.173342 0.62356001
0.197813 -0.041748099 0.69743198
0.080121003 0.137539 0.61049801
0.031493202 -0.0534252 0.95660001
-0.264828 -0.0094235605 0.82237899
-0.070839398 -0.0555222 0.956173
-0.213563 0.0184987 0.78273898
-0.36853001 0.107594 0.69069803
0.107383 0.029293099 1.0266401
0.00075354998 0.15846901 0.59165001
-0.051422201 0.24097501 0.445142
-0.152854 0.236246 0.62653297
0.239167 0.114352 0.62045598
-0.27596301 0.0244269 0.75475699
-0.29135799 0.19869 0.74024999
-0.061966602 0.27323201 0.497177
0.0016654599 0.225097 0.46089801
-0.048619699 0.230667 0.65337002
0.0218064 0.17801601 0.57878202
-0.0635048 0.167533 0.69642901
0.16695 0.14646 0.66851401
0.159058 -0.0738144 0.64979303
0.204983 0.065615602 0.59625798
0.229523 0.088061899 0.60123301
0.193341 0.040243801 0.58907902
-0.13736901 0.212274 0.39316499
-0.063872598 0.127718 0.675928
-0.00083995401 0.215073 0.541574
-0.0867908 0.122655 0.159462
-0.19607601 0.047833201 0.74263102
-0.23852099 0.17601299 0.72737902
0.10402 0.20511 0.58820403
-0.199848 0.24385799 0.71462798
0.0228648 0.184705 0.61690903
0.25772399 0.133348 0.63623202
-0.126185 0.178018 0.59073001
-0.18040299 0.20300899 0.73870701
0.24334601 0.18934301 0.66575301
-0.164235 0.029377099 0.79952103
0.103345 0.226891 0.33621901
0.20957799 0.0737544 0.59955102
0.31292799 0.071892202 0.80291301
0.150712 0.228687 0.41005099
0.30214 -0.063690104 0.836209
-0.0159414 0.249578 0.46186101
0.105044 0.21719299 0.42841801
-0.033100098 0.175578 0.45487201
-0.062987402 0.0345162 0.77910697
-0.042045601 0.100277 0.72703701
-0.0278547 0.172086 0.63627499
0.052504599 0.0327156 0.83414501
-0.064001501 -0.167877 0.85707802
-0.065674499 0.0302222 0.87731099
-0.039609801 -0.0525475 0.81322902
0.099609502 0.098653801 0.63090497
0.405094 0.21201 0.95768899
-0.163763 0.24594399 0.51466799
0.040791798 0.0564937 -0.054317702
0.37163001 -0.0039958102 0.81348002
-0.083057702 0.226905 0.62222099
-0.064138599 0.181723 0.64529097
-0.104793 0.213861 0.3664
0.153034 0.225888 0.42197701
-0.079700403 0.213102 0.50625002
-0.035991099 0.209405 0.62082601
-0.200036 0.056553502 0.75278401
0.183387 0.25847399 0.57136399
0.130376 0.199936 0.60355198
0.17543501 0.107395 0.66623998
0.042545602 0.0537102 0.73828399
0.365271 -0.059867099 0.84803998
-0.117799 0.23593999 0.44180101
0.046626002 0.054862902 0.81916898
-0.0722792 0.150207 0.66883397
0.106173 0.215956 0.36037299
0.176759 0.249126 0.50352001
0.208748 0.20869499 0.49113601
0.0445581 0.11056 0.1337
0.147962 0.27789 0.56651998
0.34011099 -0.168743 0.91836298
-0.31296 0.117357 0.70234901
-0.14566 0.236966 0.48446599
-0.33339 0.174843 0.711429
0.042723902 0.094916597 0.060208101
0.078188099 0.13228101 0.151967
0.016780401 0.229561 0.46692699
-0.118022 0.23854201 0.67984003
-0.296388 -0.0116807 0.85230798
0.210887 0.20954201 0.49501899
-0.21476001 0.24637701 0.680309
0.048424501 0.034473799 0.82098502
0.0306044 0.218316 0.42104599
0.352626 0.0287719 0.82638299
-0.114613 0.121723 0.78881502
-0.23882 0.17494 0.74746102
0.231885 -0.095667101 0.83682901
0.29470801 0.168027 0.62845999
-0.045587599 -0.0070044701 0.91099101
0.16987699 0.24385101 0.478194
-0.024309799 0.213842 0.364793
0.154154 0.213834 0.44416299
0.119436 0.16271099 0.27629
0.102885 0.239187 0.42074701
-0.026254 0.248294 0.47751701
-0.102998 0.22533301 0.42417401
0.118322 0.092692897 0.424849
0.124798 0.19467799 0.43137601
-0.150289 0.21204001 0.72499597
0.1937 0.075873397 0.51302397
-0.194978 0.144146 0.75115299
0.159162 0.22476 0.67533201
-0.28159499 0.252579 0.53145701
-0.20141099 0.15415099 0.72088802
0.033844799 -0.032131001 0.83253801
0.031801999 0.145915 0.61694098
-0.070390299 0.090332001 0.66252798
0.0226903 0.066212803 0.82133198
-0.114581 0.38477099 2.42838
0.19261201 -0.0065386398 1.08438
-0.049261902 -0.0108141 0.85091299
0.235118 -0.045381401 0.82028902
0.26330501 0.099161401 0.75931501
-0.107904 0.198727 0.88829601
0.23149601 0.093949601 0.62668198
-0.027359501 0.246263 0.466919
0.133754 0.054742899 0.701325
-0.0733831 -0.119222 0.93362802
-0.168368 0.150254 0.718853
-0.0381408 0.096092597 0.70734203
0.037074398 0.0079596201 0.798711
0.27915201 -0.091434598 0.90126801
0.073478602 0.174254 0.68386501
-0.16620301 0.243012 0.552306
-0.158224 0.23399501 0.51691401
-0.117402 0.186938 0.65266401
0.018550601 0.063485898 0.71464401
-0.14212801 0.043625399 0.85476202
-0.263318 -0.023436701 0.785375
-0.109338 0.119688 0.66964298
0.098023698 0.0241469 0.601237
-0.116829 0.176624 0.53472102
0.016667999 0.25736701 0.44478399
-0.223828 0.23282801 0.64319801
0.0532129 0.26817 0.393347
-0.075050503 0.237451 0.64877701
0.061518099 0.216343 0.575293
-0.224429 0.24357501 0.549151
-0.168787 -0.14039201 0.99481601
-0.251854 -0.0474522 0.78697598
0.29318899 -0.139608 0.81828701
-0.0704474 0.150078 0.668262
0.186193 -0.159639 0.82137901
-0.00494941 0.097268499 0.790389
0.206001 -0.220302 0.82838702
0.268143 -0.24559 0.974316
0.205558 -0.20839199 0.83105898
-0.26694801 -0.00114877 0.78235102
0.151381 0.074335203 0.73141301
0.234835 -0.098332003 0.81564403
0.27062401 0.078023002 0.79107898
0.0320259 -0.198084 0.90880698
0.22258601 -0.34639999 1.32696
0.131547 -0.0067240498 0.759516
0.296653 -0.309304 1.15754
0.25792599 -0.060663901 0.85165298
-0.22577 0.088423498 0.77033198
-0.0218562 0.047883298 0.77701598
0.140209 0.031509601 0.74510199
-0.100185 -0.0250594 0.81717801
-0.181236 0.0298739 0.91951901
-0.048014201 -0.0077183601 0.93118
0.218987 -0.174431 0.93906498
0.208537 -0.16584399 0.88655001
-0.21619301 -0.0256203 0.79842198
-0.114024 0.12960801 0.70400399
-0.051129099 0.111884 0.70751399
0.243819 -0.24795599 0.97720402
0.13525 0.041706301 0.75671399
-0.144173 -0.031911101 0.80838102
0.189996 0.036514401 0.58644098
0.123739 0.0030133401 0.87082303
0.041567702 0.095390603 0.67970598
-0.0106182 -0.195125 0.95447898
-0.102022 0.0132839 0.83422399
-0.0068165199 0.10437 0.68429798
0.106152 0.102396 0.69379598
0.220552 0.077706598 0.61972499
0.0274038 -0.059673101 0.97274601
-0.067647196 -0.045108002 0.89174998
0.046799202 0.032351699 0.81105202
0.27096599 -0.12594301 0.838862
-0.070914403 0.035567299 0.90334302
-0.20445199 0.065900303 0.76667601
-0.17269599 -0.109055 0.84123403
0.168743 -0.026310001 0.60204703
-0.117437 -0.0046111001 0.79501802
-0.114994 -0.0214449 0.79020298
0.120271 -0.039147701 0.75502402
-0.0300106 -0.048943099 0.94998097
-0.0219336 0.046808101 0.76902503
-0.095765501 0.065723598 0.79464602
0.0261645 -0.066904098 0.98697698
-0.0222074 0.093692802 0.69845802
0.0134357 0.032008201 0.79542202
0.16399699 0.14421099 0.65612799
0.14490101 0.0826433 0.71152699
0.16543999 0.061435401 0.72900999
0.15289401 -0.250606 0.98681003
-0.0211215 0.093646802 0.67054099
0.1004 -0.084901698 0.8434
0.26362401 -0.084252998 0.84362
-0.254224 -0.0080912104 0.78119802
0.257449 -0.110609 0.90368599
-0.20948701 0.082602702 0.71176499
0.17104501 0.115141 0.69821203
0.179675 0.140632 0.64444
-0.0045711501 -0.048783299 0.94417298
0.033753101 -0.25539199 1.13743
0.14610299 0.0050354898 0.72981101
0.16789199 0.130087 0.67476898
0.0193404 0.0232857 0.81526703
0.101264 0.0315057 0.79466301
-0.033836 -0.00274641 0.90781301
-0.205082 0.15418001 0.74286199
-0.0151162 -0.157291 0.790923
0.15902901 0.079617701 0.71945399
0.022679601 -0.18919 0.86767799
0.053771399 0.099817298 0.682037
-0.050527599 0.104268 0.80331898
-0.025092 -0.068678401 1.13341
-0.179031 0.180033 0.70876998
0.18593401 0.106089 0.71646601
-0.131293 0.043905001 0.78654099
0.15703499 0.047863401 0.726596
-0.063712403 0.071785703 0.78937602
0.106334 0.036649 0.76609701
-0.106429 0.071250603 0.80885398
0.220562 0.150929 0.67733198
0.18256401 0.103483 0.70246202
-0.228782 0.130933 0.82407898
-0.0109839 -0.1928 0.88935101
-0.144192 -0.033867601 0.79942799
-0.149909 0.097730197 0.74535203
0.185436 0.067207202 0.71925497
-0.043192599 -0.055050001 0.91560298
0.136896 0.056552 0.73838598
0.15910099 0.097664297 0.71185797
-0.047396298 -0.110317 0.90543902
0.19124 0.082571603 0.66967499
-0.16979299 -0.18914001 0.797885
-0.080141596 0.16142499 0.679663
0.243947 -0.40112501 1.62632
0.0279452 -0.056129601 0.94615501
0.15583 -0.0095178504 0.82125801
0.1153 0.00168288 0.76896799
0.245757 -0.119185 0.84320098
0.189963 0.14444999 0.67389798
0.050110701 0.14146601 0.61444801
-0.088687196 0.089480899 0.77858198
0.14843 -0.048850499 0.57774597
0.042163499 0.054101199 0.71846199
-0.028073199 0.133825 0.64872003
0.105436 0.058316398 0.73752999
0.0309193 0.0139667 0.821491
-0.027740199 0.13505299 0.653045
0.119957 -0.036134198 0.74696499
-0.016236 0.12776799 0.658503
-0.050832599 0.103208 0.71853602
-0.0388816 0.099295698 0.69027698
-0.102896 0.068482399 0.79398799
0.128874 0.095484599 0.71448201
-0.13928799 -0.031836301 0.77367198
-0.164309 0.030866301 0.79918301
0.0160513 0.107958 0.67065603
-0.064102396 0.034382202 0.82948703
-0.17775001 0.062883303 0.75892103
-0.0708379 -0.080068499 0.89330298
-0.068630897 -0.112338 0.78773701
0.044267699 0.104655 0.65725601
0.032613799 0.093049198 0.693425
-0.079139099 0.0472546 0.80205202
-0.206395 0.057384901 0.78184402
-0.0066833701 0.098221302 0.73057699
-0.092265204 0.0106804 0.82426298
0.132376 0.046529099 0.73301899
-0.0110616 -0.17547999 0.86547101
-0.0314641 0.117372 0.66009998
0.050351199 0.121421 0.63899601
-0.038511399 0.102108 0.70608997
-0.212817 -0.035696901 0.809434
0.17849299 0.110158 0.69118601
-0.087677501 0.053106099 0.81564999
-0.0032823801 0.116807 0.669963
-0.18220299 0.054714199 0.76088202
0.160046 0.0269583 0.73326498
0.016331499 0.109603 0.67619699
0.167928 0.043587498 0.69606
0.0532724 0.0568933 0.74940801
0.033935402 0.060730699 0.73077798
-0.0283559 0.074886099 0.75245303
-0.122618 -0.0053190798 0.82176101
-0.073117398 0.060559899 0.80580801
0.206337 -0.16182099 0.87692201
0.025582001 -0.185911 0.78820199
0.0053976499 0.107481 0.64899498
0.215248 0.093957603 0.71260399
-0.033936299 0.062216301 0.75987703
0.103238 0.081109203 0.73129803
-0.034323499 -0.00485304 0.96158999
-0.154414 -0.0074769501 0.78982502
0.0366349 0.074929401 0.73053801
-0.023467399 -0.111168 0.93167001
-0.027049599 -0.00348743 0.90459299
0.17184 0.116855 0.697918
-0.094705299 0.107795 0.73831898
0.0171903 0.075147703 0.72259003
0.049258702 0.0341754 0.85722297
-0.0530813 0.0092912996 0.92603302
0.035054199 0.060246099 0.73809701
-0.00055693497 0.077482603 0.725537
-0.058429699 0.103959 0.713516
0.176965 0.113633 0.70012701
-0.093634002 0.140495 0.70354199
-0.0105994 -0.175621 0.84863901
0.099033602 0.117036 0.672939
0.15383799 0.094963796 0.71043402
0.171496 0.124902 0.67244202
-0.066720098 -0.101211 0.86726397
0.029104199 -0.029060099 0.935525
-0.075096697 -0.127169 0.88237703
-0.00093833101 0.076319903 0.759233
0.023010699 0.123853 0.64370197
0.119102 -0.037397999 0.77802199
-0.033520501 0.055855501 0.78709298
-0.078066297 -0.095604502 0.85928798
-0.078962103 -0.094097003 0.85967302
-0.098882303 0.091683701 0.75117201
-0.139318 0.0097660404 0.80177701
-0.082307503 0.106606 0.75737202
-0.063100703 0.071772598 0.78058302
-0.096335903 -0.0086494302 0.83220202
0.129085 0.046263698 0.75004703
-0.13178 -0.0878594 0.826814
-0.073886797 -0.125356 0.87139702
-0.13399699 -0.0237955 0.81410998
-0.015864201 0.131295 0.64991999
0.085723802 -0.0065885801 0.81059498
0.000762465 -0.047364701 0.95199299
-0.0585257 -0.0591303 0.93224001
0.0278566 -0.0270436 0.91896302
0.067554504 -0.202034 0.99162698
-0.139079 0.0128304 0.78925699
0.104132 -0.023205699 0.79339999
-0.0091906702 -0.109113 0.93054301
-0.078161299 0.124315 0.77425897
0.164309 0.073029101 0.73619401
-0.128529 0.00034805399 0.79751903
-0.067437403 -0.0273946 0.91526002
0.125681 0.061579701 0.74139702
0.093219101 0.081837602 0.73863602
-0.166374 0.0576827 0.77280098
-0.094691798 0.121523 0.77410001
0.078832597 0.0652823 0.75739402
0.120799 -0.017492101 0.76741701
0.138338 0.0034527299 0.74731803
0.143453 0.071261503 0.73153698
0.106057 0.037752599 0.76525599
-0.075325698 0.054923601 0.81728601
-0.023208801 -0.022549501 1.02579
0.11609 -0.093615301 0.76380402
0.100339 0.0093604298 0.78487599
0.0693224 -0.0077999099 0.85329002
0.039121501 -0.0037131 0.80863303
-0.106959 0.098751798 0.76168603
0.064128101 0.021402899 0.803967
-0.0042197802 0.087497503 0.72431499
-0.0605563 0.0017674899 0.895917
-0.21530201 0.026615599 0.79634303
0.0035890201 0.0072209602 0.84238702
0.12775099 0.0324542 0.75876403
0.095379397 -0.048605401 0.810085
0.125458 -0.0093002701 0.75237501
-0.018183701 0.10902 0.71256697
0.153037 0.080585197 0.72404301
0.045616701 -0.044337701 0.99201202
0.019967699 -0.059841 0.98032302
-0.120913 0.100262 0.70108402
-0.071775302 -0.111139 0.85385197
-0.149563 -0.048406299 0.85796201
0.094178602 0.034965198 0.78160298
0.0441279 0.112843 0.68228602
-0.17296299 0.071516097 0.747334
0.0044149398 -0.027656101 0.97744799
-0.106785 0.122253 0.67341799
0.041109201 0.098237798 0.68800098
0.079352297 0.109763 0.68122298
0.0021287999 -0.050036099 0.98360097
-0.0069842101 0.0968154 0.71764398
-0.11198 0.038873602 0.77408397
-0.067818403 -0.047457401 0.928509
0.0095356004 0.116465 0.67842901
-0.15785301 -0.00012401299 0.81091201
-0.071625002 0.114225 0.71271098
0.045855999 -0.172364 1.01703
0.0191074 0.105586 0.67568398
-0.12755699 0.0176188 0.808586
-0.156313 -0.038052 0.83201802
0.069948301 0.087374099 0.71721601
-0.165016 0.069226302 0.74775499
0.10783 0.053014901 0.75768399
0.127988 0.086645901 0.70343399
-0.075141802 0.030561401 0.86122
-0.042330999 0.076494299 0.74366301
0.093234301 0.081009299 0.72926098
-0.075758599 0.0687242 0.80093998
0.094452798 0.035672098 0.78315699
-0.010472 0.055812299 0.76556998
0.14788 0.050207101 0.78574002
-0.096938297 -0.0171696 0.83915401
-0.045672201 0.074743599 0.73828399
0.033491001 -0.070899002 0.96103501
0.00100214 0.054849699 0.75121701
-0.0079966504 -0.00388219 0.88036501
0.071154803 0.066775098 0.73769599
0.0094339103 0.076524697 0.71225899
0.088242397 0.036761198 0.76972902
0.023376999 -0.044595402 0.95547998
0.025010001 0.080035202 0.71113402
-0.076310702 -0.102788 0.85414898
0.041730199 0.091967501 0.68816298
0.079446897 -0.0229515 0.89328301
-0.097297102 0.0121762 0.81873798
0.120237 0.073534101 0.72983903
0.109605 0.026455499 0.77518898
0.10935 0.041619901 0.75990701
0.0250128 0.035995599 0.783418
0.106645 0.0468661 0.736301
0.073056199 0.0744849 0.71962398
0.090197697 -0.027089899 0.822981
0.111035 -0.049723301 0.77645397
0.020873601 0.0226244 0.81389099
0.077206403 -0.0198381 0.85627401
-0.088171601 -0.042392801 0.86151201
-0.12897199 -0.019405499 0.80373299
0.16111 0.081988104 0.75721103
0.13855501 0.067968197 0.73823202
0.061577801 0.052039798 0.75402403
0.032271601 -0.0056426199 0.88755
-0.0198284 0.0346216 0.79183298
0.028740199 0.050812501 0.77185702
0.031920802 -0.107311 0.94320297
-0.038161598 -0.076075099 0.97727299
0.0048896102 -0.104999 0.96670401
0.036814 0.074219704 0.72683698
-0.072883204 -0.019361001 0.88778001
0.092826001 -0.0285691 0.82089502
0.0882539 -0.0858455 0.83676499
-0.0097749 -0.0058137299 0.91557997
-0.0308262 -0.0487107 0.94841802
-0.112195 -0.018164599 0.81431502
0.13284799 -0.029122099 0.78669
-0.0344369 -0.071436599 0.93794501
-0.0076073902 0.052121699 0.76856703
-0.077382497 0.046632499 0.795201
0.129683 0.0086787501 0.71671301
0.028239099 -0.070763104 0.98447502
0.028211299 -0.102217 0.96485901
0.038957499 0.066485703 0.74167597
0.037653901 -0.036226802 1.0348099
-0.061253399 -0.035105601 0.99686497
0.033463702 0.055087499 0.74518299
0.079930902 -0.0406393 0.84199703
0.0312577 0.066106401 0.72789699
0.10202 0.050485902 0.77556401
0.026548 -0.099892102 0.923482
-0.0042446898 0.0434958 0.771429
0.079255797 -0.065810703 0.886594
-0.086800598 0.0804061 0.77322501
0.106843 -0.0299103 0.78566003
-0.0145046 -0.048006602 0.96543801
0.020263599 0.021501901 0.79966301
0.070321098 0.039865199 0.76521498
0.063991196 0.0562227 0.75538301
0.092279799 0.0662449 0.75750703
0.051302999 0.0509491 0.76041698
-0.096107297 0.0569904 0.76953101
-0.049308602 -0.032088399 0.89992601
-0.0264249 -0.00309438 0.91337901
0.05429 0.0078302696 0.83925098
0.041386899 0.056044299 0.74903399
0.094573699 -0.0100813 0.82003403
0.064239301 0.0215021 0.803801
0.067098901 0.0333886 0.78916198
0.043500599 -0.043047201 0.968952
0.0062798602 0.0359818 0.78720403
0.121385 -0.0143242 0.78700203
0.085912697 -0.0056452299 0.82320899
-0.00100662 -0.109503 0.97217101
0.0285368 -0.094998799 0.94818097
0.076850697 0.053013802 0.76405197
-0.031574201 0.082286701 0.80889899
-0.048861101 0.059481502 0.78025597
0.00139998 0.054088 0.745372
0.082866997 -0.0636978 0.81405002
0.0311042 0.036710698 0.80204803
0.059749901 0.0304721 0.771424
0.03943 -0.099032901 1.01635
0.0713434 0.038977601 0.80109602
-0.060254 -0.022540901 0.907305
-0.017797399 0.033634901 0.79430801
0.088411599 -0.047241598 0.88529199
-0.0096163703 0.031999499 0.78286099
-0.111278 -0.00065811398 0.81009102
-0.060995098 -0.027713001 0.90633398
0.075778298 0.043570299 0.77089399
-0.050051 -0.030202299 0.93010801
-0.0695379 -0.045855999 0.91385502
0.0632542 0.043751098 0.781528
-0.096380897 0.062121499 0.80641502
0.039538801 -0.0114956 0.91268098
-0.042023402 -0.14023501 0.89690101
-0.0981552 0.0260386 0.85559899
-0.0502594 0.034374502 0.826428
-0.029039299 0.058451701 0.75660801
-0.069477499 -0.081849799 0.89501899
-0.092299402 0.0242377 0.83224303
0.10278 -0.00121512 0.80288202
-0.0446142 0.058169201 0.76374602
0.076190799 0.055764198 0.794393
0.056786999 0.0402149 0.76380497
0.065008 0.0250932 0.796489
0.090530097 -0.047704902 0.86684602
-0.0351898 0.058287699 0.80502301
0.098461501 0.0050034402 0.90980798
0.101088 0.036616702 0.75563699
-0.0996181 0.048654199 0.86418998
0.097336903 0.042849898 0.765329
0.078126296 0.0261054 0.809174
0.101346 -0.039306499 0.81230199
0.028597699 -0.094512403 0.95705098
-0.039345101 -0.0153185 0.85735601
-0.074899197 0.023801001 0.83659703
0.0490437 -0.056358699 0.95492703
-0.074646398 -0.094451599 0.87730598
0.038927 -0.0069972901 0.86621898
-0.064459801 -0.018502399 0.86136299
0.0342586 -0.143153 0.92496997
0.057136301 -0.153862 0.95827502
0.090674996 0.026106101 0.797809
0.0172958 0.017648499 0.801669
-0.0098543204 0.031688798 0.778202
0.090389498 -0.022625901 0.83081901
0.079149097 0.0185888 0.87148899
-0.161226 0.10458 1.03265
0.094230302 0.0251492 0.78421903
0.00652774 0.0454234 0.76479203
-0.085164897 0.051894099 0.805525
0.0154194 0.052574601 0.75734299
-0.0754603 -0.117922 0.88875902
-0.081818402 0.053446401 0.81046999
0.0147733 0.051577602 0.75276101
0.117621 0.039679099 0.797333
0.091727398 0.036162 0.77845103
-0.082943797 -0.109913 0.882909
-0.104053 0.0136852 0.84216601
0.118338 0.042966601 0.74147302
0.0354008 -0.14521299 0.95278901
0.042305801 0.055410299 0.72201002
0.051629402 -0.062794797 1.0233001
-0.081319399 -0.107404 0.88281298
0.0422085 0.054337502 0.70947701
0.109848 0.0094226003 0.765284
0.0177068 0.023867 0.76882601
-0.017684501 0.032490999 0.80550897
0.0408401 0.0620717 0.73881102
0.024126001 0.068917699 0.72985399
0.111899 -0.024401501 0.81725502
0.189564 -0.076912902 0.84862602
-0.090822399 0.0113736 0.80998403
-0.14972501 -0.062586702 0.83149701
0.043014601 -0.0107238 0.88570201
0.00500547 0.087927997 0.74667001
0.0075178798 0.039197799 0.77378303
-0.033284798 0.072472297 0.82815897
0.0045798901 0.091696203 0.70508498
0.15536501 0.081614099 0.73142099
-0.043448299 0.078292102 0.75216597
0.027447 0.058346499 0.74279702
-0.00349934 0.0826637 0.72300702
-0.137035 -0.097284101 0.84065199
0.044274099 0.105171 0.675107
0.124692 -0.037994299 0.94667
0.0095953001 0.075461701 0.70473599
0.034912501 0.103901 0.67990202
0.074506797 0.062093299 0.73528802
-0.063220799 0.106908 0.78268099
0.018879499 0.085734099 0.68810099
0.0342196 0.10281 0.683954
-0.143254 -0.020204799 0.78879303
0.00660876 0.034945901 0.74684799
-0.032965999 0.137968 0.61654902
0.052561801 0.096948199 0.66134399
0.076340802 -0.0049817101 0.84036797
-0.032837 0.110277 0.72095299
-0.073263399 -0.114186 0.86645001
0.16942701 0.123868 0.68725401
0.159916 0.052743901 0.75702602
0.15753999 0.088011503 0.76792002
-0.0080537898 0.116731 0.70852602
0.061095499 -0.00033594901 0.847175
-0.0905075 0.139924 0.75494301
0.151448 0.016076701 0.70832801
0.16475099 0.0131796 0.713947
0.15363801 0.127471 0.68067503
0.115216 0.086294398 0.651245
0.126653 0.00349768 0.75883698
0.050557598 0.122099 0.63813698
-0.126562 0.120819 0.72194701
-0.0571872 0.107001 0.75217497
0.0503502 0.143621 0.62921703
0.113647 0.13355801 0.62706798
0.082839303 0.133022 0.64540201
-0.109956 0.0116917 0.88732898
0.0254649 -0.066168301 0.97968602
0.0364911 0.131283 0.6092
-0.109526 0.121428 0.68045002
0.066790603 0.0884156 0.72454703
0.115771 -0.046930101 0.77227598
0.10298 -0.00029677601 0.81365699
0.084099501 0.138561 0.62599498
-0.056612901 0.111177 0.74479198
-0.086557202 0.13676199 0.65969801
-0.049545601 0.147156 0.67510903
0.0291702 0.13652 0.62175202
0.020470001 0.11288 0.69365799
0.056893699 0.143003 0.60867101
-0.0766121 0.150244 0.65030903
0.113391 0.112023 0.65852499
0.022422999 0.124027 0.64596403
0.19706801 0.0841517 0.662386
0.094241798 0.111495 0.64508498
0.089321204 0.079822503 0.71363002
0.170397 0.131651 0.68329901
-0.0389819 0.15390199 0.70195597
0.0065216399 0.15265401 0.60857999
-0.110137 0.122278 0.73550498
-0.087583899 -0.041343998 0.85658598
-0.042686801 0.146927 0.62925601
-0.077973403 0.177773 0.66784102
-0.13141701 -0.020580299 0.81090599
0.037712999 0.15266199 0.60341102
0.113082 0.143374 0.64574599
0.072323702 0.13131 0.63340503
0.084415503 0.038384698 0.75737298
-0.035507798 0.075925902 0.76160198
-0.089785397 0.089474499 0.77904898
0.154107 -0.073422402 0.62414002
0.049952701 0.15249801 0.72144401
0.17429601 0.0871756 0.72216201
-0.16151001 -0.00278061 0.82159501
-0.026312901 0.176054 0.63014901
0.118775 0.159927 0.66299999
-0.077689402 0.070399798 0.81141299
-0.079533897 0.134699 0.70357198
0.042296201 0.160568 0.61172098
-0.056041401 0.17173401 0.68152398
0.226863 0.131358 0.67467803
0.0146477 0.155617 0.60498297
0.15815599 0.033100601 0.68080997
-0.122542 0.122618 0.71345598
0.0501859 0.122507 0.64461398
0.11684 0.15719201 0.553891
0.076577097 0.154011 0.61189002
0.029925 0.179372 0.62060899
0.053984102 0.15899099 0.59477198
-0.106927 -0.028881701 0.85864002
0.065122403 0.108352 0.65616202
-0.00099207496 0.074493103 0.711752
-0.0177943 0.17946699 0.60921001
